1390
-1.547815 -0.323081 -4.891903 -199
-1.537333 -0.337997 -4.859737 -247
-1.554040 -0.365144 -4.912602 -206
-1.549976 -0.404330 -4.901323 -190
-1.550420 -0.421979 -4.903242 -201
-1.555216 -0.487512 -4.920450 -190
-1.553546 -0.504752 -4.915807 -187
-1.552402 -0.533436 -4.913315 -192
-1.552838 -0.551230 -4.915326 -185
-1.545312 -0.566103 -4.892369 -184
-1.556804 -0.652960 -4.930984 -180
-1.555324 -0.670004 -4.926915 -179
-1.541463 -0.687518 -4.884524 -214
-1.552811 -0.704245 -4.920408 -167
-1.559499 -0.724929 -4.941865 -178
-1.557640 -0.736402 -4.936412 -170
-1.556889 -0.753731 -4.934672 -177
-1.560476 -0.767009 -4.946329 -176
-1.558891 -0.772271 -4.941634 -176
-1.557965 -0.795635 -4.939593 -173
-1.545426 -0.813335 -4.901108 -232
-1.556556 -0.830703 -4.936288 -168
-1.558746 -0.837939 -4.943373 -170
-1.557789 -0.843704 -4.940620 -156
-1.562355 -0.875965 -4.955963 -163
-1.559844 -0.904500 -4.949033 -139
-1.559965 -0.910919 -4.949670 -144
-1.556687 -0.920802 -4.939851 -145
-1.558680 -0.945875 -4.946936 -159
-1.563666 -0.967182 -4.963073 -129
-1.562763 -0.990813 -4.961092 -137
-1.563509 -1.003792 -4.963933 -139
-1.560390 -1.032035 -4.955180 -143
-1.564275 -1.077509 -4.968853 -151
-1.562767 -1.088572 -4.964610 -161
-1.562729 -1.106689 -4.965064 -172
-1.563273 -1.125404 -4.967313 -166
-1.564156 -1.138775 -4.970545 -176
-1.562365 -1.143352 -4.965160 -174
-1.562871 -1.156316 -4.967243 -177
-1.560547 -1.209903 -4.961768 -178
-1.562227 -1.217079 -4.967276 -183
-1.561825 -1.235605 -4.966717 -181
-1.563455 -1.318132 -4.974604 -188
-1.563336 -1.342948 -4.975028 -178
-1.565015 -1.356598 -4.980785 -178
-1.560941 -1.366048 -4.968522 -174
-1.565623 -1.376170 -4.983429 -170
-1.563962 -1.399850 -4.978947 -164
-1.551945 -1.402239 -4.941668 -217
-1.564490 -1.425538 -4.981555 -141
-1.568230 -1.441871 -4.993813 -120
-1.566857 -1.472314 -4.990422 -122
-1.567404 -1.491862 -4.992853 -88
-1.570005 -1.507190 -5.001546 -69
-1.552305 -1.522339 -4.946918 -204
-1.503233 1.398033 -4.713217 -222
-1.500309 1.383858 -4.704494 -222
-1.504010 1.381078 -4.716123 -212
-1.502312 1.373730 -4.711066 -219
-1.506279 1.371551 -4.723533 -228
-1.511786 1.340543 -4.741810 -219
-1.514472 1.324997 -4.750597 -203
-1.522323 1.313777 -4.775494 -192
-1.517447 1.298294 -4.760818 -180
-1.518486 1.281079 -4.764605 -187
-1.519043 1.269835 -4.766651 -196
-1.516795 1.261745 -4.759889 -198
-1.515894 1.237541 -4.757945 -181
-1.504880 1.211207 -4.724494 -239
-1.509059 1.208764 -4.737584 -271
-1.521946 1.201068 -4.777978 -190
-1.521991 1.195488 -4.778302 -183
-1.519544 1.187968 -4.770924 -184
-1.522577 1.154623 -4.781563 -193
-1.523811 1.149915 -4.785545 -195
-1.519028 1.140529 -4.770887 -191
-1.518484 1.110517 -4.770142 -190
-1.509017 1.092425 -4.741239 -247
-1.523788 1.079191 -4.787807 -196
-1.523816 1.061953 -4.788390 -192
-1.523822 1.032704 -4.789424 -188
-1.521578 0.996529 -4.783592 -190
-1.511840 0.973048 -4.753973 -258
-1.526419 0.952802 -4.800236 -191
-1.526111 0.911888 -4.800519 -192
-1.525878 0.894843 -4.800444 -197
-1.525495 0.877108 -4.799874 -186
-1.523205 0.869996 -4.792936 -191
-1.521976 0.846151 -4.789783 -190
-1.527681 0.837856 -4.807864 -182
-1.530339 0.827737 -4.816534 -189
-1.529110 0.821059 -4.812956 -191
-1.528123 0.809409 -4.810312 -185
-1.527321 0.791671 -4.808373 -192
-1.526067 0.773574 -4.805000 -181
-1.528509 0.763308 -4.812962 -181
-1.516573 0.728741 -4.776915 -247
-1.528025 0.722843 -4.812824 -189
-1.528735 0.717203 -4.815203 -187
-1.528049 0.699836 -4.813591 -185
-1.527386 0.676486 -4.812399 -185
-1.527823 0.670993 -4.813968 -189
-1.526173 0.664746 -4.809062 -189
-1.527440 0.636247 -4.813895 -192
-1.515313 0.614621 -4.776737 -232
-1.529615 0.603300 -4.821809 -184
-1.530090 0.597428 -4.823525 -182
-1.530024 0.563179 -4.824412 -186
-1.530977 0.483378 -4.830043 -190
-1.531134 0.477924 -4.830704 -195
-1.530834 0.449258 -4.830777 -193
-1.530849 0.432252 -4.831417 -193
-1.532349 0.415491 -4.836565 -192
-1.529248 0.403110 -4.827248 -187
-1.519419 0.377862 -4.797413 -271
-1.534908 0.347432 -4.846944 -199
-1.531608 0.323656 -4.837367 -201
-1.530390 0.306848 -4.834120 -200
-1.524549 0.265794 -4.817338 -226
-1.535196 0.227715 -4.851757 -200
-1.534221 0.210376 -4.849371 -196
-1.533935 0.199061 -4.848873 -199
-1.530811 0.187486 -4.839488 -205
-1.532092 0.175907 -4.843802 -197
-1.532454 0.170423 -4.845093 -197
-1.533218 0.165022 -4.847633 -194
-1.525167 0.147029 -4.823121 -213
-1.522343 0.141024 -4.814534 -248
-1.530952 0.113053 -4.842474 -192
-1.533040 0.090434 -4.849667 -211
-1.531834 0.079044 -4.846275 -199
-1.535226 0.073350 -4.857068 -202
-1.533972 0.056286 -4.853819 -197
-1.532722 0.050699 -4.850129 -201
-1.532335 0.039661 -4.849307 -196
-1.519437 0.022019 -4.809580 -266
-1.536984 -0.000655 -4.865034 -199
-1.538230 -0.035147 -4.870191 -199
-1.535874 -0.046566 -4.863208 -199
-1.534549 -0.063168 -4.859537 -203
-1.535827 -0.069031 -4.863699 -201
-1.519450 -0.096802 -4.813597 -251
-1.536724 -0.132162 -4.868678 -199
-1.534998 -0.143457 -4.863650 -196
-1.533432 -0.154962 -4.859152 -193
-1.533653 -0.166118 -4.860232 -199
-1.534875 -0.172205 -4.864292 -205
-1.532567 -0.189033 -4.857719 -195
-1.532924 -0.206349 -4.859386 -182
-1.533361 -0.235251 -4.861647 -187
-1.537310 -0.252555 -4.874662 -189
-1.535863 -0.304462 -4.871837 -202
-1.538821 -0.310634 -4.881268 -195
-1.536964 -0.321927 -4.875880 -194
-1.532738 -0.355348 -4.863951 -195
-1.536715 -0.362354 -4.876592 -199
-1.536656 -0.373707 -4.876744 -199
-1.540256 -0.379957 -4.888173 -205
-1.537587 -0.396785 -4.880390 -200
-1.536524 -0.414021 -4.877724 -205
-1.537083 -0.425807 -4.879907 -196
-1.536663 -0.431581 -4.878793 -201
-1.537111 -0.437327 -4.880388 -202
-1.530813 -0.458462 -4.861303 -247
-1.534459 -0.465226 -4.872915 -217
-1.536999 -0.483472 -4.881491 -193
-1.537017 -0.489620 -4.881794 -195
-1.539065 -0.507669 -4.888868 -206
-1.539404 -0.513354 -4.890107 -205
-1.538367 -0.530395 -4.887390 -197
-1.538663 -0.542447 -4.888704 -201
-1.540140 -0.560374 -4.893988 -195
-1.537680 -0.565166 -4.886501 -190
-1.530786 -0.568497 -4.865144 -219
-1.537881 -0.588442 -4.887998 -209
-1.539522 -0.612482 -4.893833 -194
-1.540868 -0.619265 -4.898241 -198
-1.543411 -0.643591 -4.907027 -204
-1.542104 -0.654792 -4.903380 -198
-1.541999 -0.672343 -4.903678 -195
-1.527747 -0.689413 -4.859657 -228
-1.544012 -0.720196 -4.911495 -196
-1.544353 -0.750195 -4.913627 -203
-1.543257 -0.767134 -4.910702 -197
-1.543436 -0.773434 -4.911465 -198
-1.543178 -0.832427 -4.912838 -192
-1.544788 -0.839538 -4.918083 -187
-1.543046 -0.868156 -4.913607 -192
-1.546353 -0.875804 -4.924206 -206
-1.546082 -0.917629 -4.924774 -200
-1.536476 -0.935686 -4.895356 -237
-1.547938 -0.967045 -4.932312 -200
-1.546087 -0.977991 -4.926924 -197
-1.549049 -0.991803 -4.936596 -201
-1.548016 -0.997279 -4.933536 -197
-1.547172 -1.008399 -4.931260 -200
-1.546310 -1.014467 -4.928778 -198
-1.548439 -1.033674 -4.936162 -201
-1.546798 -1.038672 -4.931253 -206
-1.540099 -1.046157 -4.910614 -208
-1.549933 -1.083337 -4.942518 -205
-1.548770 -1.100604 -4.939500 -199
-1.547654 -1.118068 -4.936707 -204
-1.549342 -1.125675 -4.942251 -206
-1.547796 -1.136627 -4.937780 -205
-1.547664 -1.142641 -4.937540 -200
-1.548117 -1.149374 -4.939198 -204
-1.534946 -1.164044 -4.898565 -221
-1.550085 -1.224616 -4.947949 -208
-1.543800 -1.244186 -4.928964 -241
-1.549734 -1.261003 -4.948103 -208
-1.550446 -1.268062 -4.950595 -200
-1.547366 -1.339943 -4.943454 -196
-1.549894 -1.367102 -4.952351 -211
-1.548226 -1.397028 -4.948123 -208
-1.547444 -1.402915 -4.945900 -205
-1.539560 -1.401748 -4.921268 -224
-1.551336 -1.462863 -4.960221 -205
-1.552979 -1.489557 -4.966202 -215
-1.553128 -1.508959 -4.967342 -206
-1.540096 -1.521684 -4.927230 -203
-1.549645 -1.544070 -4.957748 -220
-1.548799 -1.562261 -4.955565 -232
-1.494585 1.394756 -4.703583 -225
-1.495579 1.372234 -4.707439 -228
-1.501126 1.371477 -4.724806 -248
-1.503526 1.361405 -4.732633 -188
-1.501293 1.347707 -4.726136 -238
-1.496274 1.331482 -4.711020 -242
-1.497862 1.327171 -4.716149 -257
-1.502122 1.325166 -4.729548 -230
-1.512414 1.309765 -4.762217 -175
-1.509667 1.296070 -4.754097 -178
-1.506942 1.270134 -4.746489 -173
-1.504128 1.220743 -4.739157 -198
-1.511559 1.197059 -4.763296 -178
-1.513376 1.151623 -4.770540 -184
-1.512494 1.133157 -4.768361 -179
-1.511758 1.127062 -4.766234 -174
-1.500987 1.096208 -4.733546 -255
-1.499143 1.089075 -4.728027 -260
-1.515664 1.065792 -4.780537 -182
-1.516174 1.060286 -4.782271 -180
-1.514831 1.036064 -4.778780 -188
-1.516346 1.019466 -4.784139 -180
-1.513932 1.000471 -4.777241 -178
-1.512325 0.987951 -4.772573 -176
-1.509345 0.968627 -4.763818 -209
-1.517188 0.961980 -4.788625 -179
-1.517297 0.956539 -4.789170 -175
-1.515097 0.937612 -4.782981 -177
-1.519010 0.928153 -4.795578 -183
-1.518187 0.922111 -4.793177 -179
-1.519239 0.917124 -4.796627 -182
-1.518909 0.893821 -4.796343 -184
-1.519123 0.882098 -4.797441 -179
-1.516025 0.874694 -4.788004 -181
-1.511297 0.849280 -4.774025 -185
-1.515001 0.845188 -4.785756 -175
-1.519458 0.841920 -4.799818 -177
-1.518315 0.829829 -4.796663 -179
-1.518396 0.800804 -4.798005 -170
-1.517164 0.794745 -4.794359 -179
-1.515888 0.782379 -4.790727 -168
-1.516179 0.771254 -4.791922 -175
-1.517754 0.766259 -4.796988 -175
-1.508918 0.733227 -4.770356 -278
-1.510946 0.728573 -4.776903 -238
-1.518885 0.709479 -4.802478 -174
-1.517823 0.680750 -4.800144 -177
-1.516969 0.651408 -4.798514 -177
-1.517177 0.600504 -4.800782 -162
-1.520159 0.584228 -4.810624 -177
-1.518914 0.572418 -4.807119 -174
-1.520965 0.561818 -4.813910 -175
-1.521622 0.556283 -4.816167 -173
-1.520567 0.539112 -4.813475 -177
-1.522779 0.533844 -4.820595 -177
-1.517046 0.520546 -4.803078 -166
-1.512329 0.490852 -4.789367 -250
-1.520674 0.487436 -4.815605 -190
-1.523710 0.482805 -4.825238 -179
-1.524238 0.471439 -4.827198 -186
-1.522213 0.459587 -4.821203 -177
-1.520144 0.453222 -4.814912 -180
-1.523336 0.437337 -4.825459 -181
-1.520550 0.430862 -4.816957 -181
-1.520686 0.424852 -4.817611 -182
-1.518799 0.401799 -4.812560 -181
-1.511384 0.371698 -4.790316 -255
-1.525709 0.363396 -4.835491 -186
-1.522306 0.357320 -4.825034 -184
-1.522651 0.340115 -4.826755 -184
-1.521424 0.317071 -4.823699 -186
-1.521022 0.289044 -4.823225 -184
-1.512283 0.258742 -4.796865 -251
-1.520817 0.243289 -4.824189 -181
-1.524013 0.232358 -4.834548 -183
-1.522911 0.220682 -4.831478 -186
-1.520819 0.198116 -4.825735 -185
-1.522313 0.192389 -4.830632 -190
-1.522895 0.175267 -4.833074 -184
-1.523661 0.170098 -4.835635 -178
-1.511569 0.140575 -4.798600 -269
-1.512649 0.134814 -4.802165 -237
-1.522875 0.124580 -4.834554 -181
-1.521871 0.107277 -4.832055 -187
-1.520452 0.072953 -4.828762 -179
-1.523110 0.039625 -4.838205 -187
-1.528211 -0.017473 -4.856150 -193
-1.529910 -0.029038 -4.861904 -194
-1.525423 -0.034930 -4.848068 -186
-1.527945 -0.051915 -4.856624 -191
-1.527228 -0.114742 -4.856367 -193
-1.527455 -0.131768 -4.857718 -184
-1.528665 -0.137757 -4.861727 -193
-1.529933 -0.160725 -4.866406 -194
-1.526901 -0.177685 -4.857474 -185
-1.528626 -0.195033 -4.863544 -191
-1.527265 -0.200406 -4.859487 -185
-1.525587 -0.206020 -4.854433 -174
-1.528895 -0.234851 -4.865683 -180
-1.528973 -0.246398 -4.866271 -190
-1.530721 -0.264093 -4.872390 -193
-1.527880 -0.269181 -4.863688 -182
-1.527025 -0.274616 -4.861229 -187
-1.527613 -0.286468 -4.863515 -185
-1.527566 -0.291970 -4.863566 -184
-1.529371 -0.298290 -4.869424 -196
-1.527058 -0.309294 -4.862518 -186
-1.528335 -0.321134 -4.866875 -189
-1.514974 -0.335310 -4.825498 -246
-1.529181 -0.373109 -4.871428 -183
-1.525667 -0.383949 -4.860753 -181
-1.527966 -0.390031 -4.868126 -190
-1.527790 -0.401192 -4.867895 -189
-1.527101 -0.412845 -4.866087 -187
-1.527945 -0.499578 -4.871752 -197
-1.528487 -0.511452 -4.873897 -191
-1.529892 -0.517867 -4.878555 -191
-1.526258 -0.528022 -4.867530 -194
-1.528317 -0.534934 -4.874195 -195
-1.529580 -0.558423 -4.878870 -185
-1.525955 -0.562765 -4.867677 -186
-1.531443 -0.628869 -4.887180 -198
-1.533023 -0.647392 -4.892754 -192
-1.531419 -0.664228 -4.888371 -186
-1.533737 -0.671006 -4.895892 -189
-1.519113 -0.693728 -4.850796 -253
-1.531475 -0.722689 -4.890438 -186
-1.532848 -0.740860 -4.895414 -192
-1.531231 -0.757862 -4.891011 -193
-1.531951 -0.770319 -4.893684 -191
-1.531129 -0.793653 -4.891826 -188
-1.532619 -0.805697 -4.896913 -189
-1.530498 -0.822450 -4.890905 -215
-1.533127 -0.829869 -4.899436 -197
-1.536107 -0.849219 -4.909429 -194
-1.533393 -0.871453 -4.901618 -189
-1.533884 -0.901868 -4.904321 -194
-1.534677 -0.913995 -4.907240 -192
-1.531613 -0.924391 -4.897961 -191
-1.535972 -0.998928 -4.914201 -188
-1.534404 -1.040065 -4.910640 -189
-1.523067 -1.044482 -4.875338 -225
-1.533014 -1.063377 -4.907192 -239
-1.537933 -1.078693 -4.923110 -195
-1.537742 -1.084772 -4.922698 -194
-1.537700 -1.139181 -4.924544 -191
-1.540443 -1.153583 -4.933573 -197
-1.524159 -1.165781 -4.882862 -240
-1.530574 -1.176397 -4.903340 -263
-1.541594 -1.197534 -4.938646 -203
-1.539918 -1.208020 -4.933834 -190
-1.539402 -1.220375 -4.932660 -196
-1.539242 -1.263266 -4.933727 -193
-1.537269 -1.273867 -4.927966 -191
-1.526629 -1.283638 -4.894876 -223
-1.540263 -1.313665 -4.938495 -201
-1.537518 -1.317443 -4.930002 -187
-1.539106 -1.331298 -4.935473 -188
-1.540220 -1.363259 -4.940165 -193
-1.541229 -1.376973 -4.943766 -198
-1.537362 -1.391992 -4.932164 -190
-1.534611 -1.401962 -4.923959 -197
-1.540259 -1.476586 -4.944395 -213
-1.537381 -1.479818 -4.935469 -217
-1.537667 -1.493025 -4.936712 -243
-1.538269 -1.512404 -4.939138 -246
-1.539176 -1.551329 -4.943439 -217
-1.537220 -1.555972 -4.937451 -248
-1.487602 1.393031 -4.699138 -221
-1.484102 1.384333 -4.688440 -216
-1.486651 1.380703 -4.696600 -210
-1.488179 1.370188 -4.701777 -232
-1.498284 1.373563 -4.733434 -186
-1.497083 1.354551 -4.730209 -169
-1.492169 1.338289 -4.715283 -223
-1.503535 1.306610 -4.752172 -166
-1.502320 1.299688 -4.748629 -168
-1.499772 1.280034 -4.741302 -161
-1.503706 1.277410 -4.753724 -169
-1.503201 1.259084 -4.752573 -170
-1.501805 1.252266 -4.748362 -169
-1.499328 1.238319 -4.740973 -161
-1.502031 1.234666 -4.749582 -167
-1.488918 1.206654 -4.709332 -272
-1.498772 1.203151 -4.740510 -170
-1.503794 1.177653 -4.757150 -159
-1.504087 1.142956 -4.759272 -179
-1.490009 1.091995 -4.716716 -251
-1.493573 1.088750 -4.728019 -270
-1.507301 1.069066 -4.771811 -166
-1.508861 1.058836 -4.777068 -172
-1.505173 1.050188 -4.765782 -176
-1.508582 1.041216 -4.776838 -177
-1.505635 1.010024 -4.768684 -169
-1.501922 0.984582 -4.757696 -165
-1.493133 0.973078 -4.730412 -254
-1.505306 0.957809 -4.769180 -162
-1.507445 0.953680 -4.776071 -172
-1.508063 0.936496 -4.778696 -166
-1.507892 0.930558 -4.778368 -165
-1.508164 0.913675 -4.779752 -170
-1.508940 0.902238 -4.782489 -181
-1.508846 0.879198 -4.782900 -167
-1.506796 0.866619 -4.776900 -170
-1.510911 0.845820 -4.790608 -169
-1.510263 0.828319 -4.789241 -160
-1.508846 0.815879 -4.785202 -167
-1.509202 0.793313 -4.786965 -167
-1.510246 0.782126 -4.790548 -174
-1.509005 0.775872 -4.786832 -163
-1.507084 0.746387 -4.781790 -170
-1.504647 0.728043 -4.774863 -252
-1.512834 0.720669 -4.800919 -166
-1.514276 0.715385 -4.805655 -172
-1.510970 0.708259 -4.795498 -165
-1.511774 0.697231 -4.798334 -164
-1.512569 0.686122 -4.801133 -165
-1.512071 0.680509 -4.799729 -175
-1.507409 0.649560 -4.786108 -164
-1.512867 0.646311 -4.803408 -167
-1.508629 0.627353 -4.790775 -164
-1.509628 0.605136 -4.794788 -171
-1.514382 0.595446 -4.810065 -167
-1.512981 0.589090 -4.805860 -161
-1.509538 0.570907 -4.795544 -163
-1.510351 0.559876 -4.798422 -169
-1.514187 0.549488 -4.810802 -172
-1.510814 0.537521 -4.800572 -169
-1.512048 0.526144 -4.804848 -166
-1.509118 0.507994 -4.796317 -156
-1.497646 0.498858 -4.760581 -251
-1.499442 0.494019 -4.766428 -255
-1.515043 0.476281 -4.816119 -176
-1.514011 0.458708 -4.813366 -167
-1.509823 0.446259 -4.800578 -163
-1.510886 0.440563 -4.804102 -167
-1.512728 0.435846 -4.810042 -173
-1.513125 0.424256 -4.811705 -178
-1.512341 0.406964 -4.809858 -169
-1.512070 0.389902 -4.809670 -175
-1.506565 0.371854 -4.793025 -244
-1.516364 0.345713 -4.824643 -173
-1.513883 0.328151 -4.817349 -173
-1.513336 0.316507 -4.815972 -178
-1.512414 0.311112 -4.813242 -172
-1.515415 0.305549 -4.822857 -178
-1.512963 0.288557 -4.815771 -171
-1.509869 0.270835 -4.806723 -169
-1.501248 0.257787 -4.780091 -271
-1.510608 0.248240 -4.809825 -182
-1.515701 0.215063 -4.826807 -177
-1.514395 0.209164 -4.822889 -182
-1.513091 0.203613 -4.818964 -176
-1.514915 0.174979 -4.825734 -179
-1.513441 0.169560 -4.821317 -177
-1.511531 0.157540 -4.815768 -168
-1.511590 0.152233 -4.816172 -175
-1.503769 0.146083 -4.791817 -238
-1.501779 0.140194 -4.785784 -263
-1.513609 0.124277 -4.823545 -173
-1.512295 0.118415 -4.819585 -175
-1.516133 0.090154 -4.832482 -185
-1.512352 0.078676 -4.820954 -182
-1.512395 0.039506 -4.822536 -174
-1.503344 0.027659 -4.794522 -240
-1.515225 0.005265 -4.832626 -176
-1.516917 -0.005977 -4.838268 -176
-1.518585 -0.040035 -4.844575 -187
-1.518641 -0.051735 -4.845150 -180
-1.516771 -0.062779 -4.839685 -183
-1.514731 -0.074400 -4.833715 -171
-1.513655 -0.085342 -4.830753 -181
-1.511338 -0.091249 -4.823706 -184
-1.506635 -0.101985 -4.809330 -248
-1.509190 -0.107965 -4.817569 -216
-1.516381 -0.131262 -4.840883 -173
-1.518708 -0.148370 -4.848724 -174
-1.516073 -0.159783 -4.840814 -176
-1.518270 -0.182767 -4.848534 -180
-1.517447 -0.188299 -4.846148 -182
-1.518066 -0.200051 -4.848559 -175
-1.510455 -0.210160 -4.825006 -171
-1.519028 -0.234051 -4.852760 -176
-1.519535 -0.251243 -4.854882 -181
-1.516251 -0.256543 -4.844710 -173
-1.518296 -0.262815 -4.851357 -170
-1.518898 -0.280155 -4.853834 -184
-1.519231 -0.285852 -4.855086 -178
-1.518630 -0.291227 -4.853394 -178
-1.513590 -0.296245 -4.837740 -176
-1.518400 -0.308574 -4.853326 -173
-1.507063 -0.334745 -4.818633 -249
-1.516386 -0.353639 -4.848540 -163
-1.520196 -0.371972 -4.861078 -175
-1.518252 -0.411876 -4.856358 -174
-1.517981 -0.440580 -4.856605 -173
-1.519307 -0.446474 -4.861005 -174
-1.506899 -0.449054 -4.822068 -232
-1.520407 -0.470228 -4.865220 -183
-1.520641 -0.516475 -4.867434 -176
-1.518862 -0.533420 -4.862485 -178
-1.517922 -0.550086 -4.860190 -170
-1.515550 -0.566643 -4.853328 -177
-1.507065 -0.569517 -4.826731 -226
-1.518974 -0.597134 -4.865024 -179
-1.518764 -0.620133 -4.865108 -180
-1.521435 -0.632691 -4.873940 -177
-1.520213 -0.644189 -4.870519 -182
-1.521513 -0.650451 -4.874835 -180
-1.523198 -0.656626 -4.880374 -179
-1.522940 -0.680510 -4.880499 -175
-1.516173 -0.700797 -4.859871 -245
-1.526329 -0.716794 -4.892274 -180
-1.524351 -0.733557 -4.886559 -176
-1.523413 -0.738803 -4.883779 -179
-1.526176 -0.752387 -4.892962 -184
-1.522574 -0.756134 -4.881789 -190
-1.523904 -0.774848 -4.886696 -175
-1.522509 -0.779652 -4.882498 -174
-1.521822 -0.791558 -4.880766 -177
-1.514066 -0.816482 -4.857162 -246
-1.526625 -0.846864 -4.897708 -181
-1.523478 -0.868817 -4.888625 -186
-1.525490 -0.882095 -4.895463 -178
-1.524110 -0.916995 -4.892310 -182
-1.518110 -0.937263 -4.873945 -260
-1.529109 -0.967790 -4.909542 -181
-1.527895 -0.984984 -4.906399 -180
-1.527437 -0.996783 -4.905431 -185
-1.529176 -1.003534 -4.911159 -186
-1.525929 -1.013797 -4.901320 -175
-1.528446 -1.021379 -4.909487 -187
-1.528882 -1.082221 -4.913051 -184
-1.529885 -1.101128 -4.916801 -188
-1.528893 -1.118470 -4.914297 -193
-1.529709 -1.131070 -4.917354 -189
-1.529158 -1.143131 -4.916053 -184
-1.514533 -1.162435 -4.870614 -242
-1.533440 -1.207013 -4.931685 -189
-1.531686 -1.212065 -4.926371 -190
-1.531526 -1.218291 -4.926111 -187
-1.524805 -1.243254 -4.905761 -191
-1.531873 -1.280217 -4.929312 -188
-1.518016 -1.280784 -4.885800 -246
-1.526721 -1.300658 -4.913927 -213
-1.533406 -1.349615 -4.936587 -186
-1.528155 -1.363613 -4.920452 -177
-1.530539 -1.372142 -4.928236 -177
-1.531474 -1.391397 -4.931899 -182
-1.527016 -1.399798 -4.918251 -186
-1.523236 -1.402533 -4.906498 -189
-1.532150 -1.442165 -4.935803 -192
-1.528550 -1.457512 -4.924984 -192
-1.526864 -1.468804 -4.920105 -199
-1.528004 -1.475840 -4.923948 -199
-1.528215 -1.514242 -4.926110 -210
-1.526771 -1.544221 -4.922471 -245
-1.531565 -1.561908 -4.938128 -186
-1.476717 1.399694 -4.682264 -219
-1.477861 1.383291 -4.686409 -214
-1.480920 1.368246 -4.696577 -252
-1.487938 1.368891 -4.718709 -221
-1.490361 1.365042 -4.726508 -159
-1.477641 1.330050 -4.687553 -238
-1.485450 1.325272 -4.712360 -238
-1.495716 1.316443 -4.745062 -160
-1.492989 1.278674 -4.737722 -164
-1.493058 1.255004 -4.738688 -160
-1.483772 1.206681 -4.710969 -251
-1.489007 1.205119 -4.727535 -232
-1.495839 1.204943 -4.749108 -156
-1.496422 1.169897 -4.752152 -163
-1.497002 1.158816 -4.754353 -168
-1.494850 1.134142 -4.748369 -165
-1.495365 1.122636 -4.750367 -155
-1.481969 1.089927 -4.709217 -250
-1.484286 1.085817 -4.716668 -253
-1.494208 1.063607 -4.748733 -158
-1.499260 1.026472 -4.765945 -164
-1.498944 1.009094 -4.765503 -157
-1.486460 0.966575 -4.727490 -257
-1.499222 0.957333 -4.768102 -155
-1.497883 0.944913 -4.764278 -159
-1.499491 0.940137 -4.769501 -157
-1.499612 0.917271 -4.770623 -161
-1.502238 0.913271 -4.779048 -164
-1.500605 0.877510 -4.775138 -159
-1.486769 0.852406 -4.732277 -267
-1.500918 0.831895 -4.777680 -159
-1.502367 0.826915 -4.782438 -157
-1.502844 0.815511 -4.784338 -160
-1.499870 0.808598 -4.775178 -155
-1.502631 0.792682 -4.784419 -164
-1.504142 0.781766 -4.789567 -164
-1.501402 0.774761 -4.781142 -166
-1.500384 0.762888 -4.778339 -162
-1.502395 0.706741 -4.786526 -157
-1.505718 0.702862 -4.797135 -158
-1.502305 0.672394 -4.787399 -158
-1.503937 0.667460 -4.792715 -158
-1.502155 0.661173 -4.787292 -166
-1.499868 0.654524 -4.780281 -179
-1.501247 0.637924 -4.785170 -156
-1.504066 0.633547 -4.794217 -165
-1.501593 0.609327 -4.787275 -181
-1.503045 0.604608 -4.792032 -163
-1.503389 0.599263 -4.793309 -158
-1.500580 0.569561 -4.785431 -156
-1.503591 0.559372 -4.795294 -155
-1.503379 0.553569 -4.794820 -152
-1.503711 0.547687 -4.796093 -156
-1.502536 0.536537 -4.792770 -156
-1.501561 0.524421 -4.790128 -153
-1.502583 0.479580 -4.794832 -158
-1.504230 0.474617 -4.800176 -159
-1.504174 0.457408 -4.800617 -163
-1.504293 0.423305 -4.802112 -174
-1.503158 0.400513 -4.799263 -162
-1.490192 0.380249 -4.759025 -249
-1.496633 0.370715 -4.779684 -254
-1.505498 0.367118 -4.807793 -167
-1.505535 0.338718 -4.808875 -171
-1.504715 0.321455 -4.806871 -166
-1.497336 0.252549 -4.785941 -220
-1.503572 0.230950 -4.806401 -164
-1.504503 0.202857 -4.810280 -175
-1.505794 0.186479 -4.814890 -167
-1.503314 0.163632 -4.807850 -162
-1.494557 0.140040 -4.781007 -269
-1.505272 0.124066 -4.815357 -158
-1.503997 0.118203 -4.811520 -162
-1.505191 0.072824 -4.816823 -183
-1.507613 0.056053 -4.825044 -168
-1.502668 0.033105 -4.810192 -167
-1.495402 0.027695 -4.787438 -243
-1.499338 0.010934 -4.800435 -219
-1.506778 0.005089 -4.824123 -168
-1.509469 -0.000127 -4.832809 -167
-1.510458 -0.022794 -4.836744 -175
-1.507705 -0.029127 -4.828270 -174
-1.508927 -0.034467 -4.832312 -169
-1.506583 -0.051462 -4.825480 -164
-1.509594 -0.057140 -4.835180 -164
-1.506000 -0.068241 -4.824239 -162
-1.509641 -0.074330 -4.835943 -170
-1.497852 -0.101630 -4.799669 -256
-1.508868 -0.125164 -4.835231 -172
-1.508823 -0.136840 -4.835477 -166
-1.507017 -0.153747 -4.830356 -168
-1.506150 -0.204723 -4.829343 -165
-1.504103 -0.210016 -4.823026 -160
-1.493472 -0.214155 -4.789605 -250
-1.511627 -0.245199 -4.848000 -167
-1.505183 -0.261413 -4.828238 -154
-1.510892 -0.302483 -4.847674 -170
-1.501433 -0.340549 -4.819182 -242
-1.511691 -0.371292 -4.852615 -163
-1.511537 -0.388656 -4.852741 -171
-1.507522 -0.404709 -4.840631 -165
-1.507590 -0.439083 -4.841995 -169
-1.508725 -0.473850 -4.846766 -164
-1.510658 -0.491890 -4.853490 -156
-1.509765 -0.497237 -4.850856 -158
-1.512073 -0.509364 -4.858552 -165
-1.513504 -0.521416 -4.863471 -166
-1.512640 -0.538730 -4.861355 -170
-1.510615 -0.555299 -4.855562 -163
-1.513702 -0.597116 -4.866791 -166
-1.512054 -0.602153 -4.861764 -164
-1.513421 -0.620079 -4.866724 -171
-1.514455 -0.631979 -4.870414 -175
-1.513522 -0.637656 -4.867677 -167
-1.512527 -0.660558 -4.865317 -171
-1.511931 -0.677943 -4.864040 -168
-1.509700 -0.682550 -4.857157 -167
-1.507230 -0.704739 -4.850116 -217
-1.513642 -0.730964 -4.871268 -162
-1.512499 -0.742383 -4.868056 -165
-1.513322 -0.766219 -4.871457 -170
-1.514026 -0.783891 -4.874293 -169
-1.513878 -0.790124 -4.874043 -164
-1.513503 -0.801161 -4.873256 -163
-1.513136 -0.807281 -4.872295 -177
-1.499446 -0.805977 -4.829035 -231
-1.509727 -0.822868 -4.862067 -208
-1.516674 -0.832788 -4.884341 -159
-1.517660 -0.839037 -4.887672 -168
-1.514910 -0.861171 -4.879796 -173
-1.514010 -0.878550 -4.877563 -162
-1.512338 -0.889179 -4.872652 -158
-1.514985 -0.914658 -4.881911 -170
-1.518745 -0.958700 -4.895340 -169
-1.518351 -0.970449 -4.894506 -174
-1.515270 -0.980360 -4.885114 -171
-1.517017 -1.005658 -4.891498 -172
-1.516666 -1.023047 -4.891021 -172
-1.515598 -1.040162 -4.888211 -174
-1.512253 -1.044161 -4.877780 -167
-1.516087 -1.064556 -4.890582 -185
-1.517707 -1.089802 -4.896578 -171
-1.521496 -1.116914 -4.909472 -179
-1.514511 -1.166390 -4.889194 -172
-1.516837 -1.186626 -4.897271 -207
-1.521115 -1.195758 -4.911107 -170
-1.519649 -1.200455 -4.906644 -172
-1.510168 -1.241821 -4.878178 -240
-1.521350 -1.281994 -4.914846 -176
-1.518459 -1.285527 -4.905818 -178
-1.505891 -1.281314 -4.866015 -223
-1.507625 -1.289036 -4.871757 -233
-1.520736 -1.306141 -4.913726 -178
-1.518406 -1.328615 -4.907139 -167
-1.521000 -1.336892 -4.915629 -171
-1.518338 -1.396742 -4.909356 -166
-1.508711 -1.400757 -4.879125 -239
-1.510772 -1.408876 -4.885928 -260
-1.523599 -1.439185 -4.927489 -185
-1.521348 -1.443462 -4.920550 -174
-1.518960 -1.491355 -4.914698 -178
-1.517613 -1.515083 -4.911293 -226
-1.515164 -1.519240 -4.903710 -192
-1.518590 -1.541378 -4.915264 -247
-1.479555 1.413002 -4.707984 -155
-1.472589 1.400463 -4.686328 -212
-1.470792 1.386857 -4.681110 -213
-1.468671 1.379407 -4.674651 -210
-1.477459 1.369639 -4.702820 -243
-1.470582 1.328174 -4.682377 -234
-1.475280 1.326406 -4.697319 -244
-1.481838 1.320809 -4.718285 -158
-1.487750 1.313889 -4.737223 -149
-1.485706 1.306427 -4.730985 -150
-1.487778 1.290563 -4.738065 -158
-1.486892 1.283904 -4.735469 -154
-1.487365 1.266613 -4.737557 -157
-1.484936 1.252471 -4.730341 -153
-1.485068 1.235082 -4.731342 -157
-1.473171 1.214093 -4.694346 -237
-1.472611 1.207785 -4.692794 -240
-1.481488 1.203164 -4.721064 -205
-1.489606 1.204023 -4.746805 -158
-1.487194 1.196253 -4.739460 -155
-1.488178 1.167471 -4.743514 -158
-1.488694 1.156363 -4.745534 -165
-1.486441 1.142991 -4.738841 -154
-1.486392 1.125270 -4.739279 -150
-1.485479 1.107498 -4.736930 -165
-1.473578 1.092884 -4.699712 -233
-1.474736 1.088301 -4.703520 -252
-1.478460 1.085208 -4.715389 -258
-1.488787 1.075344 -4.748464 -155
-1.488456 1.057630 -4.747999 -150
-1.491861 1.036813 -4.759459 -159
-1.488381 1.022497 -4.748924 -154
-1.476888 0.975003 -4.714149 -239
-1.476028 0.968664 -4.711637 -254
-1.491827 0.944273 -4.762568 -159
-1.492390 0.938865 -4.764531 -151
-1.492693 0.898779 -4.766829 -144
-1.496187 0.895168 -4.778020 -158
-1.493180 0.881858 -4.768926 -151
-1.493539 0.824859 -4.771934 -153
-1.491251 0.800995 -4.765489 -153
-1.491244 0.783851 -4.766044 -151
-1.494118 0.756657 -4.776067 -159
-1.494802 0.751066 -4.778461 -175
-1.497433 0.718325 -4.787890 -152
-1.498157 0.707131 -4.790562 -150
-1.495711 0.700641 -4.783042 -150
-1.495816 0.683304 -4.783960 -150
-1.492843 0.664888 -4.775161 -148
-1.496085 0.632383 -4.786546 -153
-1.487258 0.611707 -4.759274 -240
-1.491935 0.607549 -4.774223 -218
-1.493137 0.602729 -4.778196 -156
-1.498450 0.593316 -4.795352 -152
-1.496620 0.586811 -4.789773 -145
-1.492247 0.574277 -4.776340 -142
-1.490519 0.567728 -4.771085 -148
-1.493915 0.551990 -4.782393 -152
-1.496674 0.536277 -4.791643 -156
-1.493716 0.512292 -4.783058 -146
-1.487444 0.504300 -4.763454 -203
-1.495198 0.484380 -4.788687 -152
-1.497436 0.474097 -4.796130 -156
-1.495491 0.456364 -4.790579 -152
-1.499994 0.451980 -4.804997 -161
-1.497331 0.439720 -4.796964 -158
-1.495312 0.433906 -4.790778 -156
-1.494613 0.428063 -4.788758 -156
-1.494505 0.422021 -4.788622 -160
-1.493418 0.416184 -4.785377 -156
-1.495596 0.405295 -4.792659 -157
-1.490836 0.387604 -4.778214 -165
-1.498559 0.360810 -4.803600 -167
-1.498075 0.349636 -4.802444 -161
-1.500166 0.344463 -4.809260 -165
-1.495304 0.326478 -4.794467 -156
-1.499966 0.321576 -4.809419 -159
-1.496906 0.309814 -4.800108 -161
-1.496452 0.304409 -4.798856 -158
-1.496270 0.281484 -4.799034 -158
-1.495085 0.270134 -4.795655 -156
-1.484603 0.256802 -4.762919 -248
-1.490992 0.252357 -4.783279 -188
-1.499456 0.248234 -4.810240 -168
-1.496486 0.236209 -4.801228 -156
-1.495871 0.230593 -4.799457 -158
-1.496381 0.219231 -4.801450 -160
-1.497654 0.202678 -4.806036 -161
-1.496920 0.197172 -4.803922 -157
-1.499162 0.186353 -4.811509 -164
-1.494620 0.174221 -4.797664 -155
-1.496069 0.168914 -4.802501 -154
-1.484910 0.139686 -4.768345 -258
-1.495321 0.129235 -4.801733 -164
-1.497931 0.106836 -4.810807 -155
-1.497709 0.101391 -4.810277 -157
-1.495154 0.089646 -4.802545 -166
-1.495252 0.072645 -4.803350 -160
-1.498206 0.055949 -4.813149 -165
-1.496505 0.039170 -4.808261 -160
-1.497329 0.033132 -4.811129 -168
-1.486956 0.022062 -4.778757 -255
-1.495638 0.010980 -4.806751 -201
-1.500153 0.005129 -4.821299 -165
-1.494917 -0.028911 -4.805985 -152
-1.499223 -0.034307 -4.819803 -161
-1.497062 -0.039924 -4.813123 -160
-1.498248 -0.062322 -4.817601 -163
-1.497649 -0.068041 -4.815862 -157
-1.489614 -0.090402 -4.790970 -245
-1.488550 -0.101316 -4.787910 -244
-1.490587 -0.107222 -4.794559 -252
-1.502265 -0.130800 -4.832623 -161
-1.502790 -0.142240 -4.834805 -163
-1.499933 -0.153534 -4.826214 -163
-1.503398 -0.164936 -4.837627 -163
-1.501341 -0.181942 -4.831692 -167
-1.501689 -0.193475 -4.833181 -161
-1.493432 -0.209222 -4.807506 -163
-1.489558 -0.214283 -4.795367 -252
-1.499710 -0.233093 -4.828051 -157
-1.503085 -0.239050 -4.838914 -158
-1.506011 -0.245078 -4.848330 -165
-1.498790 -0.261173 -4.825853 -154
-1.501366 -0.284350 -4.834730 -160
-1.499532 -0.295383 -4.829337 -161
-1.498623 -0.301033 -4.826676 -155
-1.493929 -0.328352 -4.812710 -183
-1.491912 -0.339533 -4.806704 -240
-1.501485 -0.364463 -4.837950 -156
-1.503438 -0.393167 -4.845083 -161
-1.500540 -0.398012 -4.836040 -162
-1.503823 -0.422198 -4.847230 -158
-1.501432 -0.427371 -4.839822 -163
-1.489877 -0.452252 -4.804070 -244
-1.500639 -0.467235 -4.838678 -183
-1.501481 -0.513421 -4.842947 -155
-1.503220 -0.525304 -4.848896 -159
-1.504171 -0.543057 -4.852547 -157
-1.502131 -0.559613 -4.846635 -158
-1.493578 -0.579354 -4.820244 -252
-1.501057 -0.588357 -4.844266 -191
-1.503772 -0.647254 -4.854855 -162
-1.501147 -0.651570 -4.846674 -154
-1.505023 -0.670837 -4.859640 -161
-1.495302 -0.695914 -4.829697 -251
-1.503180 -0.722905 -4.855564 -152
-1.504448 -0.740895 -4.860230 -153
-1.503866 -0.757886 -4.859043 -160
-1.506650 -0.782717 -4.868731 -158
-1.507593 -0.789494 -4.871953 -160
-1.506006 -0.794165 -4.867087 -155
-1.507210 -0.830454 -4.872232 -160
-1.506956 -0.865309 -4.872606 -169
-1.509866 -0.872988 -4.882094 -166
-1.506959 -0.877387 -4.873024 -164
-1.507674 -0.895613 -4.875928 -170
-1.505839 -0.912234 -4.870709 -160
-1.498876 -0.937554 -4.849471 -255
-1.506925 -0.948331 -4.875323 -169
-1.508688 -0.991376 -4.882453 -154
-1.508546 -1.003394 -4.882425 -164
-1.506032 -1.007508 -4.874590 -162
-1.505074 -1.012783 -4.871741 -162
-1.508983 -1.033445 -4.884850 -159
-1.505146 -1.060533 -4.873705 -204
-1.508202 -1.068851 -4.883679 -165
-1.512098 -1.089441 -4.896730 -161
-1.513401 -1.108736 -4.901523 -170
-1.514251 -1.127366 -4.904895 -169
-1.511768 -1.137925 -4.897413 -160
-1.512221 -1.144235 -4.899055 -167
-1.512124 -1.162465 -4.899363 -168
-1.509646 -1.166536 -4.891644 -163
-1.502593 -1.173348 -4.869527 -261
-1.514625 -1.206862 -4.908823 -171
-1.513733 -1.230759 -4.906825 -176
-1.516375 -1.244810 -4.915676 -178
-1.501266 -1.238684 -4.867579 -247
-1.507605 -1.250220 -4.888082 -232
-1.515074 -1.268429 -4.912386 -172
-1.510866 -1.277503 -4.899398 -168
-1.502388 -1.282600 -4.872720 -243
-1.515978 -1.318367 -4.917008 -163
-1.514248 -1.323409 -4.911703 -165
-1.513578 -1.347627 -4.910496 -159
-1.515703 -1.361857 -4.917733 -169
-1.510388 -1.381852 -4.901598 -160
-1.511213 -1.401038 -4.904902 -160
-1.506136 -1.403076 -4.888888 -186
-1.502699 -1.411987 -4.878342 -240
-1.515761 -1.442991 -4.920751 -165
-1.511329 -1.463956 -4.907425 -160
-1.510454 -1.488041 -4.905492 -160
-1.511966 -1.495757 -4.910529 -185
-1.508145 -1.510741 -4.898942 -199
-1.508970 -1.518081 -4.901827 -178
-1.505247 -1.520862 -4.890143 -211
-1.464455 1.391661 -4.678316 -214
-1.465623 1.375248 -4.682424 -218
-1.468199 1.365740 -4.690862 -247
-1.475563 1.366746 -4.714222 -150
-1.473439 1.358822 -4.707721 -196
-1.465474 1.328082 -4.683332 -238
-1.467879 1.324261 -4.691082 -236
-1.478730 1.322477 -4.725628 -151
-1.478885 1.316285 -4.726339 -146
-1.479732 1.299275 -4.729640 -144
-1.478727 1.275137 -4.727287 -164
-1.478192 1.263188 -4.725986 -170
-1.478927 1.246080 -4.728921 -150
-1.478304 1.233722 -4.727376 -165
-1.467791 1.207947 -4.694817 -242
-1.478816 1.205041 -4.729940 -156
-1.482336 1.202269 -4.741204 -153
-1.481796 1.195952 -4.739699 -147
-1.478434 1.146387 -4.730632 -159
-1.480131 1.124359 -4.736818 -144
-1.470165 1.094083 -4.706258 -240
-1.480487 1.066923 -4.740036 -148
-1.482857 1.062756 -4.747704 -145
-1.482082 1.050964 -4.745636 -149
-1.480998 1.044145 -4.742417 -150
-1.482578 1.039645 -4.747581 -149
-1.479838 1.026321 -4.739288 -146
-1.483442 1.022615 -4.750851 -142
-1.479473 1.014447 -4.738477 -147
-1.481042 0.998113 -4.743993 -146
-1.469731 0.967928 -4.709375 -252
-1.485079 0.954938 -4.758952 -148
-1.485523 0.915054 -4.761785 -151
-1.485022 0.891681 -4.760843 -143
-1.484615 0.879926 -4.759821 -141
-1.472575 0.850150 -4.722468 -251
-1.480433 0.848961 -4.747563 -210
-1.484608 0.845998 -4.761005 -146
-1.489988 0.842930 -4.778311 -151
-1.484956 0.834488 -4.762674 -139
-1.486010 0.818054 -4.766731 -146
-1.485287 0.800695 -4.765054 -146
-1.486826 0.784364 -4.770453 -146
-1.486277 0.766775 -4.769203 -151
-1.474751 0.738236 -4.733307 -237
-1.472533 0.731852 -4.726408 -229
-1.478601 0.728653 -4.745743 -247
-1.486390 0.726780 -4.770521 -203
-1.487540 0.704639 -4.774981 -149
-1.487039 0.693076 -4.773925 -142
-1.487640 0.682286 -4.776362 -146
-1.485639 0.658524 -4.770941 -144
-1.486994 0.653476 -4.775433 -145
-1.481920 0.611692 -4.760550 -236
-1.490416 0.586477 -4.788149 -140
-1.486736 0.579545 -4.776618 -136
-1.487530 0.557344 -4.779897 -146
-1.485026 0.516920 -4.773688 -142
-1.485466 0.488625 -4.776079 -154
-1.488540 0.484047 -4.786001 -143
-1.487861 0.466877 -4.784361 -148
-1.485533 0.455012 -4.777298 -144
-1.487505 0.438679 -4.783994 -147
-1.487473 0.427560 -4.784162 -154
-1.489451 0.399471 -4.791273 -155
-1.477555 0.385200 -4.753995 -241
-1.481405 0.369620 -4.766898 -228
-1.488236 0.365585 -4.788801 -149
-1.490923 0.360288 -4.797554 -155
-1.489598 0.337572 -4.794140 -155
-1.488699 0.331947 -4.791447 -158
-1.489733 0.287209 -4.796104 -155
-1.487776 0.280863 -4.790060 -149
-1.477553 0.262283 -4.758054 -253
-1.490910 0.241922 -4.801111 -159
-1.489769 0.225332 -4.798004 -151
-1.487251 0.185474 -4.791234 -159
-1.489131 0.168672 -4.797791 -149
-1.488645 0.157247 -4.796650 -162
-1.479081 0.133801 -4.767071 -245
-1.489239 0.129161 -4.799537 -161
-1.489242 0.117925 -4.799946 -154
-1.489060 0.101146 -4.799955 -149
-1.486172 0.094974 -4.790984 -160
-1.486226 0.078242 -4.791741 -157
-1.489344 0.055815 -4.802443 -154
-1.488432 0.039426 -4.800080 -161
-1.488659 0.033098 -4.800995 -177
-1.476703 0.027612 -4.763156 -233
-1.483829 0.010569 -4.786384 -236
-1.488899 -0.000421 -4.802889 -152
-1.485845 -0.017042 -4.793747 -153
-1.490923 -0.034427 -4.810483 -155
-1.493806 -0.039652 -4.819832 -158
-1.493450 -0.056814 -4.819305 -156
-1.494060 -0.062337 -4.821434 -162
-1.490669 -0.067918 -4.810842 -148
-1.492304 -0.079355 -4.816461 -155
-1.481649 -0.090207 -4.782970 -228
-1.482403 -0.106957 -4.785959 -239
-1.491379 -0.136082 -4.815528 -154
-1.494621 -0.141884 -4.826040 -155
-1.492322 -0.158769 -4.819310 -158
-1.491204 -0.164074 -4.815938 -156
-1.494060 -0.187203 -4.825808 -152
-1.494134 -0.193060 -4.826221 -146
-1.493409 -0.203945 -4.824279 -156
-1.479090 -0.213451 -4.779077 -247
-1.486594 -0.225570 -4.803488 -191
-1.493412 -0.232876 -4.825526 -156
-1.491703 -0.254921 -4.821174 -150
-1.493129 -0.278168 -4.826729 -152
-1.492658 -0.317867 -4.826631 -145
-1.489027 -0.322875 -4.815228 -157
-1.480912 -0.338206 -4.789835 -244
-1.491556 -0.346136 -4.823919 -180
-1.490942 -0.368675 -4.822621 -149
-1.493579 -0.375025 -4.831255 -154
-1.492938 -0.380322 -4.829437 -154
-1.491276 -0.386046 -4.824426 -155
-1.493767 -0.403705 -4.833174 -160
-1.489875 -0.408293 -4.821016 -147
-1.491998 -0.414380 -4.828029 -161
-1.493552 -0.432221 -4.833669 -148
-1.490923 -0.442667 -4.825666 -159
-1.479633 -0.450758 -4.790010 -236
-1.490549 -0.465750 -4.825194 -242
-1.496124 -0.484711 -4.843449 -152
-1.495839 -0.507739 -4.843107 -154
-1.495371 -0.524372 -4.842134 -153
-1.495751 -0.541872 -4.844067 -154
-1.495776 -0.553568 -4.844651 -154
-1.485263 -0.578135 -4.812194 -246
-1.495535 -0.605211 -4.845776 -155
-1.496161 -0.617193 -4.848135 -151
-1.496155 -0.640517 -4.848765 -161
-1.495468 -0.651343 -4.846868 -151
-1.497657 -0.676072 -4.854506 -156
-1.482633 -0.686373 -4.807057 -233
-1.484163 -0.693113 -4.812211 -250
-1.494729 -0.703592 -4.846243 -180
-1.495431 -0.732781 -4.849758 -152
-1.497068 -0.745711 -4.855469 -153
-1.494046 -0.749693 -4.846007 -150
-1.494572 -0.755828 -4.847898 -155
-1.497826 -0.780825 -4.859081 -151
-1.497923 -0.798346 -4.859916 -155
-1.495704 -0.803455 -4.853003 -161
-1.490453 -0.817956 -4.836668 -235
-1.500258 -0.846824 -4.868726 -152
-1.496445 -0.868265 -4.857491 -153
-1.496830 -0.874532 -4.858973 -144
-1.498520 -0.893310 -4.865082 -160
-1.497739 -0.910477 -4.863199 -154
-1.499342 -0.917431 -4.868528 -158
-1.492770 -0.924811 -4.847872 -197
-1.492324 -0.942444 -4.847024 -247
-1.499926 -0.959216 -4.871741 -150
-1.502264 -0.966728 -4.879403 -152
-1.502110 -0.990437 -4.879593 -157
-1.504030 -0.997256 -4.885926 -160
-1.499341 -1.024247 -4.871877 -150
-1.498303 -1.035314 -4.868940 -154
-1.495084 -1.045411 -4.859017 -176
-1.503765 -1.081159 -4.887856 -155
-1.501606 -1.097890 -4.881607 -156
-1.504642 -1.124044 -4.892170 -155
-1.506259 -1.149587 -4.898210 -156
-1.504279 -1.160370 -4.892319 -154
-1.489658 -1.160917 -4.845870 -235
-1.504682 -1.190922 -4.894702 -158
-1.505386 -1.197283 -4.897155 -149
-1.504640 -1.203035 -4.894984 -153
-1.504524 -1.239357 -4.895948 -167
-1.495146 -1.244184 -4.866296 -252
-1.504489 -1.270415 -4.896908 -161
-1.491808 -1.284191 -4.857057 -239
-1.503510 -1.318561 -4.895493 -155
-1.507546 -1.365591 -4.910092 -157
-1.504445 -1.368755 -4.900395 -156
-1.506366 -1.376512 -4.906816 -157
-1.506104 -1.394989 -4.906673 -159
-1.504412 -1.430877 -4.902498 -161
-1.506728 -1.445527 -4.910347 -153
-1.507157 -1.452029 -4.911916 -159
-1.506273 -1.464046 -4.909541 -159
-1.505006 -1.481693 -4.906391 -162
-1.504359 -1.506248 -4.905533 -157
-1.503474 -1.511403 -4.902940 -152
-1.498200 -1.537858 -4.887031 -254
-1.502907 -1.548885 -4.902352 -177
-1.499591 -1.558075 -4.892032 -206
-1.455687 1.400162 -4.667858 -196
-1.459697 1.368426 -4.681422 -236
-1.463576 1.366207 -4.693855 -232
-1.466348 1.345322 -4.703624 -194
-1.458465 1.332600 -4.678942 -239
-1.458804 1.315236 -4.680705 -230
-1.465791 1.315758 -4.702994 -188
-1.469819 1.289408 -4.716571 -140
-1.469398 1.271613 -4.715628 -188
-1.464321 1.250038 -4.700191 -211
-1.465488 1.239279 -4.704438 -178
-1.457026 1.209340 -4.678619 -231
-1.458861 1.204986 -4.684625 -245
-1.471792 1.192223 -4.726258 -149
-1.471859 1.186120 -4.726638 -143
-1.472329 1.180933 -4.728267 -138
-1.473365 1.170018 -4.731819 -159
-1.469457 1.160927 -4.719573 -146
-1.473007 1.158128 -4.730941 -145
-1.466866 1.141521 -4.711871 -201
-1.469402 1.126567 -4.720653 -143
-1.474115 1.123807 -4.735868 -148
-1.461548 1.091623 -4.696960 -234
-1.467838 1.085012 -4.717291 -254
-1.477007 1.068148 -4.746991 -144
-1.473871 1.060094 -4.737202 -142
-1.471826 1.024373 -4.731656 -144
-1.475115 1.009576 -4.742803 -143
-1.462344 0.972266 -4.703482 -246
-1.465218 0.968341 -4.712805 -239
-1.469117 0.965247 -4.725347 -214
-1.475890 0.963792 -4.746995 -140
-1.476421 0.952677 -4.748993 -133
-1.476365 0.941074 -4.749109 -143
-1.477834 0.930610 -4.754044 -140
-1.477166 0.924413 -4.752096 -145
-1.476885 0.889926 -4.752600 -128
-1.470553 0.863547 -4.733324 -189
-1.465515 0.854911 -4.717518 -240
-1.466605 0.849703 -4.721176 -239
-1.472083 0.847156 -4.738730 -205
-1.482758 0.824672 -4.773390 -141
-1.478630 0.799802 -4.760930 -136
-1.479996 0.777347 -4.766302 -140
-1.476967 0.758927 -4.757402 -150
-1.467085 0.731700 -4.726787 -246
-1.474841 0.729362 -4.751606 -213
-1.481119 0.715552 -4.772023 -141
-1.479850 0.692183 -4.768604 -137
-1.481892 0.687279 -4.775230 -142
-1.479314 0.680556 -4.767179 -139
-1.478335 0.657615 -4.764871 -139
-1.476624 0.645336 -4.759974 -133
-1.475521 0.639393 -4.756728 -132
-1.480740 0.635926 -4.773558 -147
-1.478978 0.595860 -4.769497 -137
-1.479662 0.578855 -4.772172 -140
-1.479573 0.561815 -4.772371 -142
-1.481279 0.545268 -4.778246 -146
-1.478520 0.527644 -4.769891 -138
-1.466336 0.500762 -4.731955 -240
-1.479615 0.488822 -4.774946 -154
-1.482944 0.466974 -4.786523 -141
-1.480825 0.460605 -4.779987 -145
-1.478592 0.454495 -4.773076 -137
-1.481519 0.433014 -4.783073 -147
-1.481429 0.415815 -4.783263 -152
-1.480330 0.404078 -4.780067 -141
-1.480609 0.364976 -4.782161 -150
-1.482695 0.359574 -4.789067 -142
-1.479001 0.336392 -4.778277 -148
-1.483097 0.331875 -4.791564 -144
-1.483270 0.314747 -4.792775 -148
-1.482007 0.303238 -4.789136 -153
-1.478845 0.291607 -4.779404 -141
-1.480047 0.280467 -4.783548 -146
-1.475485 0.268568 -4.769305 -152
-1.471500 0.256387 -4.756926 -239
-1.481725 0.247095 -4.789792 -160
-1.479729 0.224357 -4.784139 -151
-1.479375 0.218348 -4.783241 -143
-1.479850 0.196345 -4.785699 -149
-1.480863 0.168444 -4.790017 -143
-1.479787 0.151298 -4.787133 -145
-1.476884 0.117473 -4.778782 -143
-1.476283 0.100715 -4.777415 -163
-1.473183 0.083663 -4.768229 -216
-1.480464 0.055747 -4.792590 -153
-1.479753 0.044510 -4.790720 -155
-1.469519 0.022024 -4.758757 -237
-1.481328 0.005214 -4.796944 -163
-1.482061 -0.000346 -4.799428 -150
-1.480597 -0.005637 -4.794897 -151
-1.481781 -0.016984 -4.798971 -154
-1.481636 -0.034259 -4.799080 -153
-1.480078 -0.050909 -4.794891 -145
-1.483658 -0.062071 -4.806835 -150
-1.481490 -0.079032 -4.800608 -147
-1.471401 -0.095448 -4.769012 -238
-1.483613 -0.129993 -4.809016 -142
-1.482742 -0.158254 -4.806954 -147
-1.483456 -0.169592 -4.809600 -148
-1.484683 -0.198200 -4.814774 -145
-1.473293 -0.218928 -4.779236 -239
-1.488341 -0.243813 -4.828135 -154
-1.488005 -0.249297 -4.827242 -148
-1.486361 -0.260708 -4.822312 -142
-1.485962 -0.271674 -4.821346 -148
-1.487958 -0.278105 -4.827893 -150
-1.487391 -0.300758 -4.826743 -146
-1.485609 -0.305933 -4.821247 -142
-1.485027 -0.317311 -4.819859 -143
-1.481938 -0.327931 -4.810455 -159
-1.488959 -0.363904 -4.834247 -149
-1.487379 -0.374395 -4.829543 -145
-1.484352 -0.379904 -4.820044 -155
-1.485461 -0.396720 -4.824073 -151
-1.483633 -0.413398 -4.818681 -155
-1.486552 -0.431570 -4.828644 -141
-1.479770 -0.446957 -4.807690 -200
-1.473380 -0.455900 -4.787700 -237
-1.487169 -0.483439 -4.832763 -143
-1.487654 -0.500339 -4.834863 -153
-1.485522 -0.534458 -4.829048 -146
-1.487243 -0.552254 -4.835065 -143
-1.478939 -0.566499 -4.809127 -238
-1.478539 -0.583550 -4.808633 -251
-1.487032 -0.615532 -4.837029 -143
-1.484173 -0.620254 -4.828081 -143
-1.489832 -0.639983 -4.846788 -154
-1.487535 -0.644681 -4.839593 -152
-1.488161 -0.650780 -4.841755 -145
-1.491699 -0.658134 -4.853271 -153
-1.490341 -0.668841 -4.849198 -145
-1.487718 -0.673919 -4.840939 -145
-1.478845 -0.692991 -4.813190 -249
-1.489618 -0.749991 -4.849936 -148
-1.490705 -0.762531 -4.853848 -144
-1.489408 -0.779084 -4.850237 -159
-1.486483 -0.824624 -4.842198 -195
-1.488842 -0.831602 -4.850001 -151
-1.491009 -0.850799 -4.857767 -147
-1.492831 -0.857363 -4.863864 -147
-1.492922 -0.875261 -4.864911 -154
-1.490398 -0.885353 -4.857219 -145
-1.489480 -0.902518 -4.854855 -148
-1.490783 -0.909367 -4.859245 -150
-1.486339 -0.923981 -4.845459 -165
-1.478034 -0.925241 -4.818928 -210
-1.493004 -0.964096 -4.867910 -145
-1.493565 -0.982346 -4.870523 -149
-1.494922 -0.994737 -4.875405 -153
-1.495821 -1.001868 -4.878564 -158
-1.492960 -1.023500 -4.870242 -151
-1.491836 -1.034496 -4.867004 -143
-1.489824 -1.045427 -4.860919 -164
-1.497563 -1.086407 -4.886778 -153
-1.498233 -1.099192 -4.889358 -150
-1.496486 -1.103663 -4.883990 -148
-1.494464 -1.114680 -4.878060 -149
-1.493983 -1.132430 -4.877331 -147
-1.496550 -1.152403 -4.886309 -146
-1.492784 -1.155679 -4.874399 -147
-1.494429 -1.162868 -4.879894 -149
-1.486817 -1.175319 -4.855944 -214
-1.492509 -1.185557 -4.874427 -171
-1.496524 -1.200790 -4.887683 -144
-1.499697 -1.209584 -4.898073 -159
-1.498768 -1.227021 -4.895573 -152
-1.495409 -1.230327 -4.884955 -151
-1.497579 -1.244054 -4.892442 -152
-1.488572 -1.243084 -4.863721 -251
-1.495286 -1.260666 -4.885877 -168
-1.496092 -1.267820 -4.888728 -154
-1.493026 -1.277171 -4.879311 -175
-1.491614 -1.282233 -4.874969 -232
-1.482682 -1.280922 -4.846398 -236
-1.489679 -1.298856 -4.869331 -251
-1.498667 -1.324918 -4.898808 -154
-1.498326 -1.337132 -4.898052 -151
-1.498013 -1.348985 -4.897462 -151
-1.498609 -1.355843 -4.899630 -146
-1.498396 -1.362065 -4.899221 -151
-1.494544 -1.370553 -4.887315 -145
-1.497888 -1.392498 -4.898808 -149
-1.494218 -1.394969 -4.887194 -156
-1.494592 -1.401914 -4.888622 -166
-1.496565 -1.428386 -4.895772 -155
-1.497412 -1.447709 -4.899035 -146
-1.495966 -1.452971 -4.894595 -146
-1.498125 -1.467134 -4.902000 -150
-1.497286 -1.473048 -4.899546 -150
-1.493840 -1.475820 -4.888647 -158
-1.495152 -1.502111 -4.893717 -155
-1.498145 -1.511086 -4.903579 -147
-1.493071 -1.512572 -4.887410 -169
-1.485914 -1.517769 -4.864690 -235
-1.491408 -1.542330 -4.883123 -233
-1.493009 -1.563028 -4.889133 -242
-1.449043 1.392908 -4.664256 -219
-1.448228 1.380024 -4.662234 -210
-1.450537 1.376697 -4.669796 -222
-1.452490 1.366518 -4.676420 -226
-1.456904 1.347032 -4.691016 -226
-1.448135 1.327793 -4.663412 -238
-1.452312 1.319503 -4.677079 -223
-1.456093 1.311623 -4.689584 -205
-1.456519 1.305725 -4.691184 -222
-1.455191 1.298905 -4.687218 -187
-1.455394 1.287171 -4.688252 -222
-1.455671 1.270377 -4.689632 -228
-1.456398 1.253482 -4.692364 -223
-1.455314 1.240533 -4.689240 -208
-1.459201 1.186269 -4.703941 -170
-1.463701 1.183727 -4.718427 -141
-1.461540 1.170617 -4.711835 -177
-1.461244 1.158509 -4.711159 -176
-1.457163 1.143956 -4.698522 -227
-1.459010 1.128347 -4.705130 -209
-1.458986 1.116303 -4.705605 -181
-1.463815 1.114456 -4.721170 -180
-1.457365 1.081085 -4.701577 -242
-1.464604 1.074605 -4.724888 -137
-1.465878 1.058037 -4.729370 -137
-1.466354 1.041144 -4.731530 -141
-1.465587 1.017578 -4.730103 -140
-1.469419 1.014688 -4.742509 -138
-1.466246 0.995207 -4.733013 -158
-1.456075 0.977402 -4.700940 -225
-1.467834 0.950444 -4.739250 -136
-1.468378 0.939302 -4.741458 -134
-1.471121 0.912549 -4.751355 -137
-1.470571 0.906672 -4.749792 -137
-1.469745 0.877261 -4.747986 -147
-1.457764 0.853361 -4.710223 -248
-1.468520 0.814118 -4.746318 -130
-1.470001 0.791841 -4.751872 -129
-1.469294 0.774515 -4.750097 -128
-1.472057 0.764753 -4.759173 -129
-1.473838 0.714562 -4.766755 -127
-1.473021 0.702742 -4.764637 -125
-1.474029 0.686089 -4.768461 -132
-1.472450 0.674487 -4.763748 -133
-1.471058 0.667741 -4.759479 -143
-1.469751 0.656094 -4.755591 -130
-1.473783 0.646325 -4.768722 -130
-1.460991 0.612982 -4.728949 -244
-1.470342 0.588516 -4.759919 -121
-1.470605 0.572051 -4.761287 -131
-1.471337 0.566057 -4.763789 -131
-1.473343 0.561430 -4.770341 -129
-1.473032 0.544189 -4.769760 -140
-1.471184 0.538253 -4.764002 -134
-1.468571 0.520254 -4.756256 -155
